93.596210 -53.874206 97.108044 86 109 87
92.628270 -53.972992 97.410701 77 100 76
91.245181 -53.847343 97.714240 82 106 79
92.312979 -54.050242 97.397998 95 124 99
92.318385 -54.086642 96.826244 86 109 84
92.068112 -54.207893 96.527350 81 105 79
91.076682 -54.298862 96.162235 107 132 104
91.731574 -52.701828 99.531861 28 49 34
91.594756 -52.379677 99.221088 60 79 53
92.275469 -52.414676 99.269215 50 68 53
91.909768 -52.302866 99.214721 39 56 44
91.910322 -52.290987 98.928181 45 60 49
93.645505 -53.229535 97.378717 64 81 65
91.924072 -52.303195 98.603837 25 41 29
92.170448 -52.177099 98.311077 37 52 43
91.800728 -52.004692 98.274328 30 43 32
91.104149 -51.961756 96.165196 39 51 41
91.952928 -51.601870 97.117789 30 48 40
91.018598 -51.671399 95.892575 51 67 52
92.079497 -53.532322 98.324570 86 114 84
91.431146 -52.789527 99.271093 39 62 44
91.070171 -52.648242 98.891425 51 74 52
91.307523 -52.491463 98.922514 81 105 81
92.038548 -52.503822 99.560984 58 78 57
92.890758 -53.152850 98.914667 66 91 67
91.931442 -53.238005 99.808482 61 90 61
92.649513 -53.326785 98.941281 78 111 85
92.375632 -53.406465 99.233371 51 79 55
92.174781 -53.785289 98.615270 57 85 62
91.098078 -53.585461 97.996605 99 125 102
92.562700 -53.951870 98.308111 52 79 57
93.294115 -53.975543 97.057537 73 88 62
92.341038 -54.084779 97.112128 81 105 81
92.711113 -51.895979 95.586803 87 84 74
92.423608 -52.030205 95.918518 47 54 39
92.455008 -52.070465 96.186162 33 45 33
93.358915 -52.672654 95.576177 35 49 41
92.619202 -52.350278 96.132967 114 111 93
92.582130 -52.329058 98.041401 22 39 28
92.425483 -52.760915 99.542184 33 49 36
90.751937 -52.764083 97.410200 67 94 72
92.671024 -52.636138 99.192215 92 111 88
93.064222 -52.761364 98.273342 33 49 36
91.889339 -52.290212 98.756715 28 45 34
91.894898 -52.259418 98.488750 32 48 37
91.497244 -52.119227 98.453151 66 93 71
90.677510 -52.434137 97.251007 42 62 50
90.918882 -52.337956 97.264352 86 110 84
92.072814 -51.860896 98.152540 24 37 27
90.796216 -52.094327 96.363583 46 65 50
91.143332 -51.956704 95.992753 36 51 40
93.504508 -52.891980 96.132541 19 32 22
93.902008 -53.099364 95.864351 29 39 27
92.411458 -52.760146 100.172137 66 88 67
92.807157 -52.870415 99.100212 61 86 69
92.623677 -53.277731 99.055030 69 96 69
93.208821 -53.027204 97.819351 54 73 56
91.821044 -53.654571 99.380770 93 117 96
92.515783 -53.690340 98.798944 91 118 90
93.437580 -53.585599 97.542631 63 86 64
92.195889 -53.852819 98.502016 52 74 52
92.583247 -53.998279 97.507360 117 139 110
91.233501 -53.887811 97.562673 97 115 94
93.267757 -52.724985 95.693217 41 57 46
93.727758 -53.180275 96.326770 22 34 25
93.863898 -53.447552 97.208803 38 55 44
92.100083 -53.488783 99.411044 59 81 52
92.118126 -53.539149 98.438667 63 83 57
91.404209 -54.180265 96.364644 69 97 69
91.375872 -54.146168 96.631445 58 90 66
91.684227 -53.343420 99.394675 31 49 33
91.588668 -53.101893 99.409584 15 39 23
91.355177 -52.539973 99.037441 50 75 57
91.228213 -52.236186 98.135348 29 45 34
91.265175 -52.256651 98.459706 22 37 30
90.780024 -53.489161 97.083000 60 87 65
91.736735 -53.451209 99.549065 78 109 73
91.622569 -53.127195 99.524176 52 81 58
90.701957 -52.496389 97.366589 47 68 51
91.764085 -52.729328 99.551105 21 36 25
91.267123 -52.253573 98.593193 17 33 22
92.001036 -53.341725 99.542685 37 68 36
91.031516 -51.695926 95.835700 163 161 159
92.483345 -52.104561 95.919361 26 36 25
92.505444 -52.114578 96.491784 23 34 25
92.221438 -52.209333 98.330160 26 43 33
92.074245 -52.604239 99.829953 42 65 44
91.065722 -52.666277 98.910989 57 80 61
91.577964 -52.194359 98.625461 60 74 58
91.764174 -52.072540 98.333677 33 49 37
90.853603 -52.105447 96.496589 41 59 46
91.979046 -51.672484 97.672468 37 52 41
92.706743 -52.569609 99.075657 63 85 67
92.920764 -53.184309 98.762284 62 82 60
93.012428 -53.431992 98.480400 79 107 84
93.575351 -53.940185 96.651858 98 131 102
92.296850 -54.108746 97.265996 65 78 62
91.343645 -54.140227 97.280628 127 156 127
91.301400 -54.139117 96.918626 82 108 78
91.339592 -54.191577 96.060506 74 91 68
91.106842 -54.263127 96.313642 78 97 75
91.755169 -54.337380 96.057805 62 79 61
92.539649 -53.084929 99.567073 72 102 77
93.124513 -52.823841 97.987646 55 73 55
92.576328 -53.083834 99.223004 100 127 95
92.946321 -53.233802 98.629465 52 80 63
93.586600 -53.967350 96.480565 69 93 67
91.641696 -54.134239 97.409729 94 121 89
92.348680 -52.512680 99.251323 32 48 36
93.239815 -53.814639 97.398127 59 81 56
92.929647 -53.906728 96.145243 48 69 50
93.238955 -53.136416 97.706926 58 79 64
91.851607 -53.685150 99.266526 60 94 74
92.609358 -54.035893 97.088002 69 92 71
93.331199 -54.051763 96.772496 124 142 116
91.017962 -54.022046 97.110900 77 109 88
90.994323 -54.103422 96.788697 114 139 111
93.395208 -52.682244 97.770509 52 76 58
92.554388 -53.028624 99.603727 92 124 100
93.442634 -53.254790 97.439511 47 65 50
92.923062 -53.537439 98.102459 64 83 60
92.905136 -53.520827 97.816080 55 77 53
93.098399 -52.775227 98.082325 36 53 39
92.620636 -53.929111 97.505220 53 74 53
91.833835 -52.776855 99.913776 91 123 106
91.607138 -52.238136 98.740547 40 58 44
90.795595 -52.596048 97.482024 58 87 69
91.001728 -52.186869 97.813090 72 93 72
92.195902 -51.992892 98.077452 37 51 38
91.803531 -51.833347 98.079498 37 57 43
92.060217 -52.592471 100.135227 55 79 53
91.154467 -51.972115 97.729574 66 109 83
91.154314 -52.039308 97.425785 23 45 33
91.705571 -51.829478 98.023586 57 77 58
91.431021 -53.547263 98.925974 67 97 74
91.339786 -53.220946 99.206038 48 65 46
91.216814 -52.287214 98.327529 9 25 15
92.377604 -53.247440 99.306011 51 74 49
91.848170 -53.478726 99.586242 78 106 78
92.469268 -53.495123 99.024127 67 87 61
92.765521 -53.403020 98.674172 118 138 107
92.642536 -52.414289 96.172270 93 88 74
92.236367 -53.644866 99.298152 88 115 83
93.067608 -53.268683 97.750644 36 57 39
92.615940 -53.824638 98.418903 85 113 89
92.848004 -53.665215 97.762991 91 124 97
90.749639 -53.235442 97.440186 86 111 85
92.607037 -53.838709 97.808675 43 66 43
90.941441 -53.795371 97.488467 71 103 74
92.050093 -54.001580 97.438879 72 102 75
91.347842 -53.977684 97.505825 109 138 107
91.102018 -54.080901 97.187367 92 120 90
93.004109 -52.475747 98.801981 30 48 34
92.432990 -52.727043 99.407706 49 69 50
92.976757 -53.186627 98.475263 62 81 64
90.850151 -53.747949 96.916190 49 69 48
91.031820 -52.640975 98.796398 64 93 66
92.212568 -51.845510 95.650164 59 71 53
92.415386 -52.376097 98.369344 29 44 37
93.556800 -53.578804 97.464400 40 65 48
91.566524 -53.414771 99.283535 39 57 38
90.969299 -51.469580 95.602383 145 143 132
92.580317 -52.176943 95.614274 97 99 85
93.780913 -52.641396 95.626551 34 45 37
93.521620 -52.742965 95.976185 31 44 34
91.023987 -52.987181 99.033501 84 109 93
92.468837 -52.738267 99.331107 81 117 86
93.248611 -52.720378 97.888030 55 75 59
90.888173 -54.056550 96.789164 91 124 96
92.444311 -52.020420 95.746236 38 47 36
92.452226 -52.074862 95.995465 67 72 58
93.096562 -52.779060 95.716045 88 96 85
93.698101 -53.505026 95.685841 62 74 57
92.560871 -52.339722 98.175544 35 52 42
92.405893 -52.768941 99.790744 37 53 40
90.697822 -52.147091 95.660134 41 56 39
92.792951 -53.081788 99.162545 55 79 64
93.114073 -52.940304 97.952316 34 55 34
93.205737 -53.187988 97.670432 50 68 49
93.045591 -53.659315 97.664553 64 91 77
90.982068 -53.498226 97.939034 91 117 91
92.730300 -53.736565 97.651851 107 132 105
92.182664 -53.962679 97.951312 90 117 87
93.127117 -53.867075 97.305562 105 128 98
91.124444 -53.778583 97.657164 70 96 71
92.163904 -53.947386 97.607724 103 125 97
93.296993 -54.171847 96.375003 65 86 62
92.711574 -52.784835 99.175968 74 92 65
92.158935 -53.040863 99.781534 58 88 66
92.542681 -53.214039 99.188329 83 110 80
91.867201 -52.636089 99.604702 53 75 56
91.672332 -52.047997 98.372619 58 80 60
92.992102 -52.828549 98.753039 52 76 58
93.298061 -53.668493 97.527495 96 119 95
92.843004 -52.881639 99.023613 55 80 62
90.842239 -53.704507 96.991639 23 39 23
91.032099 -52.640535 98.815467 55 78 60
91.489089 -52.799767 99.442238 40 68 49
90.923336 -52.341921 97.894144 30 54 41
92.705933 -52.414981 98.957600 37 57 43
92.825661 -52.719201 99.039204 28 52 37
93.653630 -52.682943 95.801121 28 41 32
93.379043 -52.841695 96.075961 30 43 34
91.375261 -51.952473 97.630481 46 71 54
92.263489 -52.622531 99.484105 43 62 46
92.263213 -52.633971 99.789714 37 54 43
91.897195 -54.261528 96.569248 95 119 90
90.896464 -52.673274 97.768590 52 74 51
92.372752 -53.199161 99.591226 64 87 64
93.016902 -53.258010 98.399988 60 86 62
93.067333 -53.280123 98.056253 74 95 75
92.852458 -53.669179 98.392784 113 137 107
91.384336 -54.166731 95.944778 80 105 76
91.748648 -54.291739 96.228603 37 53 36
91.971838 -53.453895 99.488446 131 149 117
93.886057 -52.934727 95.975290 33 46 34
92.314392 -52.232117 98.367497 25 41 31
93.789852 -53.350867 97.169487 28 45 34
93.027061 -53.955477 97.461730 97 105 84
91.967560 -52.391300 99.406755 50 67 49
91.990575 -51.710210 97.844924 29 41 31
92.612225 -53.618654 98.719549 93 114 81
92.351943 -53.788735 98.708184 90 117 98
92.032479 -53.872581 98.409437 100 127 97
92.197554 -51.913255 95.919119 28 42 29
93.401808 -53.942023 97.131528 81 110 78
93.398191 -53.947739 96.883622 48 77 49
91.405210 -53.342262 98.978875 28 58 45
91.697450 -53.222560 99.620702 68 97 72
90.935911 -52.867728 98.974780 71 99 76
91.487811 -51.989230 98.068615 32 52 41
92.474185 -52.218071 98.212172 37 53 41
91.706120 -52.886035 99.765486 54 77 54
91.497501 -52.285735 98.857747 80 104 80
92.455157 -52.247218 99.148229 46 71 55
91.105957 -52.091871 97.942966 100 123 107
91.420970 -52.015061 97.936599 69 78 58
92.248041 -51.656473 96.427725 30 44 34
90.581423 -52.884031 97.186447 53 81 62
91.481622 -54.137725 97.221306 100 129 99
92.209301 -54.122361 96.656904 69 99 69
90.810105 -53.888268 96.442914 24 37 21
90.699961 -53.635852 96.724958 74 88 66
91.469751 -52.952301 99.446037 91 122 89
91.332781 -52.708343 99.156153 38 59 41
91.993506 -52.707055 100.367849 69 98 64
91.155108 -52.382883 98.578725 73 87 65
91.870562 -52.463866 99.448011 26 51 36
90.781883 -52.227946 96.385957 25 40 31
90.898719 -53.360298 97.879818 19 44 25
90.841155 -53.572319 97.503870 110 142 110
90.863680 -53.492702 97.749796 69 102 74
91.169675 -53.407209 98.716635 63 98 74
91.437595 -53.303009 99.282839 65 85 58
90.664731 -52.276417 95.663599 55 84 55
91.252276 -52.054177 97.806375 93 121 104
90.849871 -52.912899 97.202280 46 68 46
93.140212 -53.668461 97.491629 80 107 83
91.433204 -51.962713 97.801626 66 95 73
90.749544 -51.944305 95.635619 80 99 77
91.065266 -51.799422 95.971181 29 45 34
90.659083 -52.964000 97.148991 44 67 49
92.858485 -54.028348 96.072750 23 46 29
92.606711 -52.502064 99.170978 57 76 55
93.853901 -53.285435 95.812091 45 60 43
92.789080 -53.756486 98.204883 102 124 99
92.766149 -53.758789 97.899930 110 135 107
91.493607 -53.951870 97.655774 71 109 75
91.881526 -54.118451 97.348614 60 99 62
90.883950 -52.715061 97.559814 55 80 55
91.761521 -52.165691 98.507619 27 46 34
90.832754 -52.215425 97.339118 62 94 74
90.960356 -51.828545 96.087886 38 53 40
92.594477 -52.288465 95.998315 81 74 62
92.513536 -53.036315 99.661752 87 111 85
91.850976 -53.318381 99.716090 48 74 52
91.028993 -52.968266 99.052075 65 91 78
90.907159 -52.712318 97.883837 40 62 45
93.863567 -53.737886 96.662072 95 118 104
90.686530 -52.453820 96.602479 36 55 44
90.783016 -52.048240 95.752031 32 50 36
91.972798 -51.604404 97.212977 37 52 43
93.042828 -54.310255 96.133813 137 151 117
90.913304 -52.546697 98.242522 51 73 61
92.394434 -51.986428 95.803431 58 66 50
92.370951 -52.011610 96.109696 36 49 36
93.383897 -52.900974 96.115425 24 37 28
92.063462 -52.131547 98.254336 33 50 40
92.578221 -52.535161 99.133989 43 58 44
92.337129 -52.641902 99.464393 34 50 38
92.271960 -52.676093 99.771474 29 47 34
92.294613 -52.674230 100.057358 40 61 45
92.783219 -53.119178 99.144465 103 127 99
92.560604 -53.219651 99.150030 81 110 81
91.953080 -53.449602 99.469537 67 93 65
91.018598 -53.586325 97.940533 79 106 81
91.109705 -53.834888 97.620510 82 107 82
91.511252 -53.957922 97.598405 73 102 69
92.228771 -54.069581 97.342421 74 117 97
91.913202 -54.147271 97.310649 57 92 56
91.279737 -54.083467 97.318420 88 120 89
91.982669 -54.173237 97.004893 80 112 82
91.247628 -54.111280 96.708847 69 95 69
91.241996 -53.785426 97.789194 93 129 97
93.231320 -53.917024 97.171606 40 69 46
92.324103 -54.010654 97.511426 77 99 75
90.791938 -51.856222 95.652054 36 55 36
91.739491 -53.591759 99.475931 84 113 83
91.715424 -52.927278 99.785385 36 58 37
91.666554 -52.646826 99.493374 62 81 60
90.548985 -52.388689 96.984660 46 62 44
90.887766 -52.319257 97.665135 53 69 52
91.926557 -52.477184 99.485669 105 132 111
91.104972 -52.171384 97.906646 44 64 47
91.665808 -51.991357 98.218738 31 51 40
92.228092 -54.014706 97.913681 90 116 81
91.534033 -52.384833 99.183925 78 109 85
91.808340 -52.215520 98.565336 29 45 34
91.369275 -52.072900 98.224944 46 65 50
90.746490 -51.982141 96.399890 60 80 58
92.501141 -52.298366 99.148737 80 101 80
93.267798 -52.646037 97.905120 40 57 40
93.419350 -52.889884 97.603191 55 74 57
92.752275 -52.855338 99.138833 64 90 66
92.121268 -53.110471 99.764604 46 74 49
93.667145 -53.452132 97.364450 63 81 61
92.963108 -53.397121 98.575735 87 111 85
93.502701 -53.863301 97.357247 40 60 46
91.001229 -51.653907 95.644335 66 80 71
92.424443 -52.028886 95.975727 64 74 57
92.437363 -52.064413 96.243531 27 40 27
91.727322 -52.318775 99.084162 48 68 55
90.995624 -52.007596 96.358674 66 82 64
93.063217 -52.752878 95.639593 113 114 103
92.564763 -52.322566 98.117840 22 38 27
92.531735 -53.030487 99.317843 25 40 31
92.367164 -53.363903 99.270681 60 85 60
93.346035 -54.207159 96.260599 62 86 60
93.117308 -52.701327 98.080345 62 82 68
92.966216 -53.080389 98.663805 60 91 69
92.975947 -53.031999 98.357206 77 97 77
93.031714 -52.744863 98.578777 35 55 43
93.131288 -53.024989 97.896766 56 72 57
92.231134 -53.363327 99.463491 42 68 55
92.962671 -53.442754 97.603518 67 91 66
92.496847 -53.909187 98.537093 83 111 85
91.401665 -53.704626 97.918588 83 117 93
91.835724 -53.866161 98.240405 105 133 103
92.520730 -53.939319 97.640499 103 128 100
90.837610 -53.934684 96.443583 88 113 84
91.640550 -54.247946 96.095583 68 94 73
93.287340 -52.949906 97.778255 58 81 62
92.514696 -53.547151 98.986497 83 121 97
93.511650 -53.526336 97.521100 85 109 86
92.360386 -53.976245 98.407043 70 99 70
93.625408 -53.762036 97.162283 54 74 53
90.890756 -53.617751 97.752284 100 128 93
92.638988 -53.856090 97.465100 47 65 47
93.309966 -53.917480 97.170469 56 81 54
91.708842 -53.963022 97.824645 73 106 79
92.361062 -54.020119 97.511105 62 88 66
90.982142 -53.865874 97.451331 87 114 90
92.989946 -54.002205 96.833583 64 91 65
91.393270 -54.029712 97.468194 86 113 89
92.110511 -54.141811 97.193142 97 121 94
91.799669 -54.201025 97.160874 71 110 86
92.092029 -54.126078 96.868623 101 118 94
93.405645 -54.203761 96.221483 65 88 62
91.786317 -54.233132 96.570211 90 117 88
91.792832 -52.862739 99.992690 52 84 62
92.359223 -52.629918 99.387459 47 68 48
92.062011 -51.566151 97.287129 33 50 42
91.560854 -52.354374 99.106496 45 72 54
91.834883 -52.185501 98.468837 43 60 47
91.744327 -51.914059 98.177642 49 69 51
91.047192 -51.872003 96.030370 34 49 38
90.932527 -52.105463 96.514522 25 43 31
91.781030 -51.757017 97.772725 25 42 32
90.824326 -51.827969 96.280696 59 91 62
92.041436 -51.653689 97.499369 28 44 33
90.627961 -53.747790 96.270578 26 52 36
93.055518 -54.034327 96.260852 40 69 46
90.873384 -53.589260 97.179366 60 86 62
90.780857 -52.652353 97.445369 68 91 73
91.743434 -53.273709 99.621210 38 62 40
92.489717 -52.239395 96.094131 34 41 29
92.497798 -52.281643 98.270544 49 67 55
92.446289 -52.984831 99.470708 46 71 51
90.845755 -52.651600 98.093255 26 44 32
91.492577 -52.705297 99.325506 39 61 42
91.110490 -52.485483 98.734413 38 59 43
91.370297 -52.716929 99.193971 32 52 40
90.818322 -52.961833 97.280204 55 79 58
90.997442 -51.915764 96.127524 30 47 34
92.126899 -53.436325 98.684258 82 113 81
90.722842 -53.109953 97.456767 62 85 64
92.368020 -52.105200 96.264567 25 38 27
93.904560 -52.783512 95.914282 31 44 34
92.989425 -52.811701 95.680193 44 55 44
93.717620 -53.140351 96.249662 22 34 24
93.849867 -53.424784 97.189399 33 46 34
90.837051 -52.275583 97.340442 29 52 39
90.685852 -52.398946 97.173738 32 51 38
91.567013 -51.988807 98.105617 31 52 40
92.615609 -52.465993 99.131849 62 80 62
93.141450 -52.908966 97.913026 34 51 34
93.667296 -53.373939 97.343561 64 84 70
92.575064 -53.163786 99.167614 86 113 81
92.041459 -53.412668 99.486480 68 94 60
93.269517 -53.166994 97.592682 57 73 56
91.604082 -53.913952 97.920462 79 114 77
92.237544 -53.966756 97.588012 97 129 98
92.006030 -54.092301 97.308027 94 124 92
91.691017 -54.169111 97.314394 70 98 68
91.700874 -54.198475 97.047754 69 105 78
91.011536 -54.177107 96.408468 88 114 92
92.489485 -51.916941 95.628687 61 72 54
92.585171 -52.236222 95.653737 133 128 106
93.648706 -53.102505 96.268879 24 36 26
92.378983 -52.365752 98.407804 28 43 37
93.780119 -53.388257 97.151407 29 46 36
93.400947 -53.263799 97.440327 46 64 48
92.312857 -52.345509 99.267074 29 44 34
92.706060 -52.492735 98.997559 44 64 49
92.861356 -52.808618 98.983493 46 65 46
92.387186 -53.288243 99.344980 74 97 69
92.762158 -52.739754 99.136023 63 87 72
93.036036 -52.649074 98.519254 46 69 53
92.461176 -52.839333 99.161794 66 98 69
92.565485 -53.133983 99.453324 84 107 72
92.305204 -53.304064 99.441960 86 96 76
93.019528 -53.309806 97.962216 78 100 79
91.620092 -52.986205 99.616380 13 32 13
90.677102 -52.345823 96.867300 31 45 36
90.663746 -52.355930 95.627279 66 81 62
91.382706 -52.430442 98.977262 34 55 42
91.694255 -52.292154 99.026779 27 44 33
91.242268 -52.103007 98.093904 58 71 58
93.196081 -53.604026 97.489328 88 113 87
91.794939 -54.208501 96.836691 95 121 92
91.115058 -54.161182 96.521093 106 133 113
90.948167 -51.557998 95.776485 153 159 155
93.746307 -52.706166 95.819388 37 50 39
92.544084 -52.176404 98.229275 32 45 36
90.892646 -53.882568 96.708752 40 71 46
93.061737 -54.236355 96.131833 56 66 42
90.783766 -53.550199 97.046186 65 87 64
91.247969 -53.040456 99.184132 91 122 97
91.507267 -52.960887 99.483856 88 114 85
91.005575 -52.492607 98.201760 37 59 43
91.024613 -52.507460 98.564418 44 62 46
91.369891 -52.639615 99.134943 66 89 72
90.915294 -52.209725 97.604956 72 93 81
91.803953 -52.812150 99.781439 38 61 46
91.685185 -52.573365 99.472324 49 69 52
91.198077 -52.115974 97.923094 78 92 74
92.520431 -52.191781 95.958999 29 43 29
92.491463 -52.881351 99.353160 52 71 55
92.527310 -52.892575 99.276560 29 46 34
92.545861 -52.163520 95.786221 67 71 55
93.444493 -52.818064 96.112629 32 44 34
92.932403 -54.047278 96.072109 40 62 45
90.915730 -53.813071 97.317495 90 117 93
91.439332 -53.635019 97.935517 66 96 69
91.621305 -53.207147 99.468786 53 86 62
92.039920 -52.679570 100.366538 85 115 84
90.893750 -52.187830 96.745993 27 48 33
90.779149 -51.920449 96.073565 91 121 93
92.185224 -53.679827 98.975279 72 100 77
91.585601 -52.249240 98.855621 39 55 44
90.851233 -52.220158 97.338958 63 100 79
91.171798 -52.079554 96.090590 30 43 33
92.256663 -51.631842 96.694205 36 51 43
90.910932 -51.559972 96.082415 75 83 62
92.261944 -51.601487 96.407170 34 48 38
92.265482 -52.296559 99.171218 39 58 46
90.906948 -52.222917 97.032867 45 71 56
93.017988 -53.401198 98.212435 73 98 68
91.768253 -53.525223 98.557953 62 88 59
92.996167 -53.390742 97.659081 68 89 65
91.152381 -51.842440 95.932735 29 45 34
90.736172 -52.154358 95.755161 34 53 36
91.879695 -51.670813 97.521208 31 46 37
90.943357 -53.915241 96.708766 53 80 55
90.833770 -53.661945 97.028949 45 68 43
91.494063 -53.728290 97.917786 49 78 52
91.680764 -53.281943 99.450560 58 77 50
91.246983 -53.119968 99.147812 40 60 40
90.991674 -52.558593 98.546994 55 77 52
92.123142 -52.739744 100.385795 53 79 46
90.651394 -52.374523 97.021007 47 62 49
90.906675 -52.245356 97.663155 53 72 54
90.760240 -51.994349 96.075545 74 95 72
90.774269 -52.006118 95.770271 60 86 63
91.499897 -52.026077 98.279210 36 55 40
91.730980 -51.968165 98.236336 39 58 41
92.766456 -52.799912 99.137348 64 87 69
93.106338 -52.673722 98.270707 52 70 59
92.246606 -53.083002 99.781226 58 79 50
93.145748 -52.969124 97.914351 31 49 33
92.583533 -53.206349 99.130305 77 107 76
92.068407 -53.459963 99.449009 85 107 82
93.708275 -53.444002 97.325495 66 83 65
92.512598 -53.628423 98.873898 88 110 81
93.563019 -53.780831 97.335381 64 92 72
91.914370 -53.866617 98.239268 96 121 93
91.585171 -53.976853 97.597763 73 103 70
91.718920 -54.259841 96.400055 52 80 60
91.081006 -54.214073 96.427391 69 93 76
92.931483 -53.067406 98.816683 62 83 64
91.804663 -53.568567 99.493529 57 91 65
93.022718 -53.393723 98.536619 90 116 90
92.548665 -53.907102 97.639349 82 103 77
92.297284 -54.052112 97.913534 86 114 81
92.312019 -53.984808 97.625509 87 114 88
91.353934 -54.101958 97.336847 93 121 92
91.321268 -54.130651 96.689135 90 117 88
91.393504 -52.703187 99.193316 49 73 60
91.621577 -52.349218 99.143659 68 91 69
91.325041 -52.419761 98.825186 76 100 79
93.047390 -52.920940 98.773447 34 50 39
92.887117 -53.314514 98.727609 81 110 88
93.291709 -54.191202 96.337359 69 92 64
91.375328 -53.377557 98.846538 51 73 50
90.841807 -52.947651 97.298619 83 104 86
92.564190 -52.246447 95.806950 60 60 45
92.517376 -52.218617 96.398590 24 34 26
92.670619 -52.558824 99.133187 58 77 58
93.027416 -52.684705 98.577453 43 66 50
93.474789 -52.904082 97.602709 50 62 50
92.988399 -54.060597 96.109766 49 69 52
92.464920 -52.911370 99.449658 46 69 48
91.661967 -54.192088 96.914587 54 87 58
92.264630 -53.311315 99.519054 82 106 82
92.515733 -53.166744 99.225800 92 121 89
91.986298 -53.398030 99.506031 55 77 53
93.589763 -53.371724 97.420977 52 72 56
92.754068 -53.743943 98.338692 84 110 88
92.471012 -53.860133 98.650842 84 113 83
92.201425 -53.977972 98.294899 91 120 92
92.202811 -53.953773 97.740890 84 107 76
93.147113 -53.936363 97.116029 38 68 49
91.554608 -53.946274 97.712006 82 115 79
91.868330 -54.094363 97.386419 86 117 81
93.567412 -54.041690 96.463476 81 103 76
91.234866 -54.030560 97.394190 93 118 90
91.622785 -54.197140 97.087030 95 124 92
92.839461 -52.430514 98.917843 61 82 64
92.546823 -52.505901 99.191024 44 62 46
92.424903 -52.917741 99.564892 61 80 53
93.104896 -52.976815 97.972376 21 40 21
92.927261 -53.385896 98.652334 83 102 74
93.182530 -53.201730 97.671088 34 50 34
93.887675 -53.232983 95.886725 31 45 31
91.111526 -53.754056 97.714039 71 101 83
92.442219 -53.225127 99.285470 90 117 91
93.530432 -53.374682 97.479162 91 110 91
90.678699 -53.635516 96.534422 95 123 93
91.645145 -53.571174 99.343246 75 106 80
91.512500 -53.242427 99.318517 60 91 68
91.078719 -53.080452 99.015769 72 101 79
91.001083 -52.844537 98.992378 68 100 78
90.814504 -52.522147 97.480044 52 69 52
91.520940 -52.594447 99.322536 38 60 42
91.101187 -52.444240 98.714514 75 96 78
91.034389 -52.136176 97.811445 62 86 68
91.722892 -52.158864 98.393522 26 40 31
92.344557 -51.952435 95.860626 110 109 91
93.640283 -52.737049 95.859814 28 41 33
92.443344 -52.187932 98.307346 26 41 31
92.267942 -52.626496 100.113897 30 52 36
93.302508 -52.814968 97.813090 51 72 53
91.862630 -53.422861 99.603827 46 75 54
92.839869 -53.343318 98.671711 88 106 79
92.694458 -53.747340 98.377807 92 117 92
92.695415 -53.801775 97.825618 97 120 94
93.658626 -53.710464 97.198777 48 68 47
93.648888 -53.725854 96.531340 48 74 60
92.134301 -53.982242 97.494456 71 102 69
91.573035 -54.240901 97.184184 92 123 90
92.226085 -54.274679 96.278495 73 93 69
91.604318 -53.422917 99.340423 24 45 29
92.620214 -53.216254 99.110914 105 133 103
91.881507 -53.471908 98.688658 31 57 27
92.299085 -53.324738 99.347107 80 105 83
93.223003 -52.971778 97.817866 54 73 55
93.456489 -53.511698 97.540652 66 88 70
92.541870 -53.883901 98.440434 36 65 44
91.450461 -52.792940 99.328141 42 60 43
90.676675 -52.435456 97.193798 34 51 39
92.592857 -53.905135 98.134838 65 92 67
90.700517 -53.634972 96.763097 38 67 46
90.592036 -53.346918 96.185523 27 46 31
91.260836 -53.365877 98.924275 52 72 46
91.684760 -53.498488 99.493662 80 107 78
91.174420 -52.375297 98.311095 46 64 48
90.774650 -52.239379 95.890147 40 55 40
91.913814 -53.867497 98.201129 105 128 100
91.644781 -53.973455 97.558647 76 102 76
92.610477 -52.407154 99.073316 48 69 55
93.045642 -52.533931 98.497375 70 90 71
92.866616 -52.945211 99.081985 64 86 65
92.569250 -53.039073 99.355662 52 75 57
92.646733 -53.342182 99.075263 79 102 74
92.295514 -51.917124 95.975031 22 36 23
92.801494 -52.401562 95.959735 46 51 38
92.741052 -52.417279 96.266321 66 70 57
92.896622 -52.710723 95.621967 38 48 39
93.326940 -52.811221 95.980599 21 36 27
93.784998 -53.291588 97.130023 101 111 100
92.241399 -52.656515 100.210396 48 71 55
93.101258 -53.973968 97.480158 111 132 105
90.891382 -53.962520 96.653363 19 40 27
92.183221 -53.961799 97.989451 71 100 69
90.726353 -53.684026 96.649349 76 93 68
90.626493 -53.371341 96.338254 51 76 58
91.322796 -53.425716 98.752996 65 87 60
93.854832 -52.660327 95.625909 34 42 34
91.194451 -53.168127 99.054270 88 116 93
93.595539 -52.761895 95.975543 28 41 30
90.957621 -52.611484 98.453291 30 52 33
93.813886 -53.302806 96.252004 26 40 26
92.393316 -52.232133 98.385430 27 44 34
93.046121 -52.978893 98.068700 55 79 56
93.370437 -53.767816 97.452394 99 124 91
92.713058 -53.796827 97.443569 33 52 34
92.178072 -53.267417 99.595640 85 120 90
91.254308 -52.462747 98.750874 39 64 48
91.877368 -53.366556 99.640481 83 117 92
91.940263 -53.647776 99.302539 62 90 71
93.082347 -53.212379 97.787298 55 86 69
93.489023 -53.383252 97.499047 61 78 63
92.762031 -52.662000 99.096065 51 71 59
92.409658 -53.498521 99.063243 60 83 58
92.094370 -53.586771 99.375219 83 111 79
92.811884 -53.676430 98.469878 71 95 72
93.081740 -53.514152 97.546176 83 111 88
92.501323 -53.746205 98.781359 86 112 85
92.274535 -53.853274 98.500880 56 74 52
91.179074 -53.649153 97.863305 48 77 55
92.931880 -53.936210 97.271836 55 66 49
92.383619 -53.817555 98.670219 65 96 66
93.348216 -53.702046 97.489369 81 104 79
92.073734 -53.931204 98.085762 103 134 101
91.024411 -53.711038 97.752485 102 127 98
92.147650 -53.939135 97.760441 73 96 68
91.431369 -53.892471 97.807983 69 104 69
91.823459 -54.041456 97.462189 74 95 72
92.485968 -54.060284 97.204868 80 110 87
93.429713 -54.043753 96.541868 82 108 82
91.499946 -54.198652 96.592677 67 83 60
92.037149 -54.122000 97.231923 93 126 92
91.305851 -54.132081 97.223741 111 143 111
92.046450 -54.152244 96.927143 75 94 70
91.075444 -54.233867 96.370677 57 85 62
93.384768 -52.798707 97.735180 62 81 67
92.656691 -52.769757 99.214589 46 60 42
92.278354 -52.643980 99.560718 38 53 40
93.315348 -54.109826 96.659563 105 132 103
91.753647 -52.856791 99.840454 52 77 52
90.819406 -52.269532 97.397812 59 88 69
91.649703 -51.893913 98.025887 46 67 53
90.824407 -52.228617 96.767029 52 74 59
91.904701 -51.743186 97.999608 54 70 56
90.778808 -54.081709 96.276077 71 97 75
91.851335 -54.277133 96.284019 99 127 97
91.689652 -54.026363 97.482877 78 106 77
90.942024 -53.649545 97.790437 62 87 60
91.757187 -53.296917 99.621545 43 69 48
91.373808 -52.466512 99.016391 68 88 72
91.265045 -52.167898 98.095068 22 34 25
91.277690 -52.214864 98.668482 40 63 45
91.583441 -54.236386 95.981647 74 99 74
93.481257 -54.064107 96.274411 52 84 60
90.664088 -52.945085 97.167565 58 80 58
90.841177 -52.580882 97.748183 46 65 45
90.731764 -52.917935 97.356790 11 26 22
91.475128 -52.298158 98.915612 100 124 96
90.801759 -52.252480 97.130502 51 78 62
91.356911 -52.036494 97.995279 71 86 62
91.357744 -52.024175 97.727809 48 80 62
90.760065 -52.228490 96.157282 25 43 30
91.276757 -51.738536 95.852189 46 62 51
92.843004 -52.881639 99.023613 69 92 69
92.579563 -53.669346 98.721194 93 117 89
92.168432 -53.494509 98.379652 76 100 72
92.022468 -53.910410 98.372288 93 120 91
92.643286 -53.916248 97.466425 55 78 57
93.393742 -53.965774 96.903187 88 114 88
92.411493 -54.042232 97.167370 95 121 95
92.407042 -54.049268 96.862256 77 105 77
91.443828 -54.129579 97.164418 76 107 82
91.860236 -54.252063 96.569569 98 122 96
91.952999 -53.873444 98.353365 95 121 92
93.199393 -53.743696 97.454333 58 81 60
92.582290 -53.943844 98.059550 64 94 69
91.920891 -53.912258 98.068471 68 94 66
93.542009 -53.925003 96.900084 81 111 88
91.629764 -54.030200 97.502923 71 99 72
92.011024 -52.635353 100.270521 61 89 62
91.614753 -52.459965 99.356234 61 91 71
91.930044 -52.382714 99.368937 66 86 66
91.949507 -52.296935 99.080417 44 61 49
92.185596 -52.220108 99.056117 31 51 40
93.510206 -52.993939 97.527929 87 110 93
91.151409 -51.987952 97.844487 97 124 102
90.878050 -52.167700 96.612171 31 50 38
91.721698 -51.759975 97.830910 56 77 63
91.963624 -51.651915 97.557715 27 44 33
92.337423 -54.101495 97.188901 95 109 78
91.370188 -54.110208 97.184130 93 122 99
92.017403 -54.186220 96.852015 62 81 57
91.361009 -54.135719 96.879511 78 104 76
92.008502 -54.211291 96.566465 105 130 104
91.355723 -54.144074 96.517188 95 121 91
91.101558 -54.282481 96.275998 85 111 86
91.757407 -53.564372 98.463595 30 62 30
91.489595 -53.099782 99.277394 21 42 32
91.810326 -52.946984 99.956209 71 105 74
90.979567 -52.688694 98.721925 53 80 55
91.294176 -52.545569 98.981208 43 68 52
91.954750 -52.622474 100.213793 58 84 55
90.780238 -52.074637 96.210692 27 44 31
90.734932 -52.078363 95.638924 44 60 42
91.931821 -52.635777 100.233518 71 96 64
91.535400 -52.538582 99.340121 73 94 69
91.790119 -52.388295 99.294771 50 72 60
92.026486 -52.311029 99.289541 43 68 52
92.720371 -53.350553 98.730873 56 82 57
92.085189 -53.601282 98.745921 76 108 81
93.327561 -53.399936 97.539955 83 109 79
93.436873 -53.664672 97.525381 91 116 93
91.534056 -53.877866 97.863400 73 107 71
91.930876 -54.019375 97.841789 61 91 66
93.310774 -54.061108 96.963847 67 91 69
90.887391 -53.767975 97.259618 102 125 97
92.324071 -54.133601 96.598238 73 97 74
92.073799 -54.254853 96.299344 71 98 76
92.032046 -52.280234 99.021576 29 45 36
91.402877 -52.265589 98.705993 40 63 50
92.050523 -52.273967 98.696737 33 49 38
92.050521 -52.262967 98.372058 34 50 39
90.978950 -52.121978 97.811926 83 108 89
91.822716 -51.748007 97.771909 33 50 39
90.595777 -53.407955 96.148708 62 82 65
90.946370 -52.573319 98.299905 52 74 58
90.988059 -52.575309 98.623767 43 62 43
91.138595 -52.197125 98.002168 46 61 49
93.086266 -53.050275 97.993425 80 105 80
92.958937 -53.414716 98.614369 87 111 83
92.643495 -53.570160 98.622555 79 106 74
92.406852 -53.658865 98.933394 58 93 78
92.945583 -53.435823 97.699026 77 105 83
93.612263 -53.437055 97.403071 58 79 63
93.466855 -53.852077 97.433846 48 74 50
92.183899 -54.016674 97.418191 81 111 81
91.919167 -54.193790 97.101713 91 123 93
93.558361 -54.144954 96.198815 71 90 65
90.879577 -53.936234 96.786516 111 136 110
91.687925 -54.296896 96.191440 57 88 67
91.359326 -53.513814 98.754494 45 73 50
91.254188 -53.242483 99.055113 58 83 64
91.099170 -52.926160 99.088248 99 121 102
90.979845 -52.688254 98.740994 60 84 66
90.919620 -53.784915 96.935113 46 76 52
90.749864 -53.524897 96.931594 49 80 59
91.415043 -53.527573 98.773083 62 92 68
91.286976 -53.269544 99.093426 49 68 48
91.770330 -52.786408 99.685917 34 52 39
91.388522 -52.566155 99.113893 77 102 80
91.292404 -52.314507 98.765984 47 70 54
92.260436 -51.569932 97.570578 52 67 60
92.847277 -53.097745 99.085785 58 81 62
91.979751 -53.497337 99.412997 47 69 45
92.989219 -53.434735 98.156377 78 103 80
93.240598 -53.278725 97.557513 100 120 96
93.363662 -53.566668 97.543273 72 96 74
93.076154 -53.689894 97.550309 62 85 64
91.839617 -53.849005 98.182701 88 117 87
92.231987 -54.008550 98.180656 98 127 99
92.528240 -53.916447 97.830701 92 117 91
92.538375 -53.945371 97.583130 102 132 99
93.162659 -54.023686 96.946061 107 130 97
91.556124 -54.010829 97.522635 97 121 94
91.639161 -54.261144 96.324914 86 120 90
91.947626 -54.283641 96.225513 81 107 77
93.416520 -54.030665 96.904351 84 107 88
91.083724 -53.061537 99.034344 26 52 39
90.833691 -52.447807 97.497133 25 43 28
91.191894 -52.637489 98.984820 29 46 33
91.644158 -52.815196 99.612086 40 58 36
91.101333 -52.344047 98.044267 34 52 40
90.956019 -52.124281 97.506972 62 85 67
91.608059 -53.483954 99.303608 77 105 77
90.814936 -52.454514 97.802903 18 34 21
90.679191 -52.220552 95.681183 34 45 31
90.965315 -52.132524 96.552835 24 40 29
91.648696 -52.140373 98.375094 29 40 31
93.009037 -52.902674 98.353741 34 51 39
92.406248 -53.147149 99.646789 55 78 56
93.374857 -53.059238 97.474158 51 77 52
92.302246 -53.542602 99.333000 55 81 57
92.930976 -53.591881 98.351688 80 112 85
93.828900 -53.235061 95.983049 40 55 40
90.824792 -54.132858 96.276585 98 121 95
90.875780 -54.154091 95.970990 124 151 121
91.580639 -51.934261 98.065993 26 47 38
90.988522 -52.118782 96.552180 31 49 37
90.898244 -51.846900 96.280054 74 97 73
91.158094 -51.744452 95.968559 26 42 32
92.152863 -51.648207 96.562510 29 44 34
91.294241 -52.044728 97.824629 90 120 98
91.896081 -51.778817 98.057807 55 71 56
92.143010 -51.640843 97.478508 36 52 40
91.303808 -52.019532 95.915525 33 46 37
92.839461 -52.430514 98.917843 44 65 48
92.602667 -52.597413 99.249571 60 83 60
92.114615 -53.789566 98.616247 92 114 91
91.827658 -53.889913 98.012065 49 78 55
93.321716 -54.222660 96.184976 68 91 62
91.771975 -52.939717 99.861182 38 65 45
91.361120 -52.753440 99.214031 45 71 53
91.918215 -52.512376 99.562937 93 121 94
91.781243 -52.257418 98.948374 44 62 46
91.034958 -51.924350 96.165342 34 49 38
92.352752 -52.017437 96.453604 19 34 25
92.490552 -52.238076 96.151340 30 38 25
92.970262 -52.730094 95.602256 48 54 43
92.479596 -52.276470 98.289775 40 57 46
92.292106 -52.667188 99.561052 30 44 32
92.328236 -52.699972 100.152880 32 52 34
90.814710 -52.989549 97.681657 26 44 34
90.825640 -52.271612 95.909230 67 88 70
90.688392 -52.028094 95.600276 37 58 40
90.601063 -53.399601 96.511031 85 109 85
92.030870 -52.793834 100.426556 100 130 93
90.828432 -52.311215 97.398641 51 76 60
91.412074 -52.062131 98.300407 33 57 40
91.697644 -53.634963 98.198921 38 58 40
91.959059 -54.120665 97.271199 104 137 98
93.027265 -52.762899 98.598342 41 64 48
91.917690 -53.214798 99.808148 88 117 93
93.503534 -53.850982 97.089777 58 77 62
92.882217 -52.487694 96.456723 43 52 39
93.677521 -52.746075 95.878563 44 57 46
91.786524 -52.227064 98.661340 29 46 36
92.244270 -51.729383 95.876030 26 37 23
92.502661 -52.118975 96.301088 27 40 30
93.680730 -52.652044 95.742761 27 40 32
93.434781 -52.688507 95.709023 26 41 31
91.450309 -52.871134 99.349030 31 60 43
91.227786 -52.325819 98.461846 33 46 34
90.737058 -51.852145 96.015353 52 60 44
92.532944 -52.138993 95.843096 37 44 31
92.504734 -52.182651 96.149855 33 41 32
93.559366 -53.063005 96.154769 28 40 29
92.498783 -52.202130 98.306864 34 50 40
92.908804 -52.389727 98.896807 52 76 55
93.439372 -52.814224 97.677489 45 66 50
92.589802 -53.107482 99.204269 87 113 87
92.987022 -53.304305 98.592329 71 94 71
92.290360 -53.940158 98.349981 76 104 77
91.956987 -54.056989 97.422431 118 147 110
92.828368 -53.171645 99.087765 74 100 73
92.554056 -53.318958 99.056996 85 112 83
92.280025 -53.476832 99.369976 69 93 72
93.130303 -53.104502 97.860446 39 59 43
93.441015 -52.956533 97.528076 46 68 53
92.035190 -53.511535 99.412515 72 95 68
92.975040 -53.501160 98.482540 72 100 78
92.011270 -53.582351 98.746563 89 115 82
92.441435 -53.750042 98.801406 84 108 79
93.221689 -53.352625 97.559493 51 70 50
93.418393 -53.659939 97.525542 78 105 80
92.518510 -53.964837 98.137300 74 104 78
93.472820 -53.898597 97.224910 72 96 73
91.816535 -53.929502 97.898637 89 121 90
91.154855 -53.887355 97.563809 98 123 98
92.500428 -54.004419 97.222452 86 110 84
92.273643 -54.122488 97.266651 46 65 43
92.189038 -52.448533 99.385760 40 55 42
91.410129 -52.076209 98.491598 51 72 50
92.094454 -52.083493 98.138273 29 46 34
91.669701 -51.974201 98.161034 43 64 47
91.999173 -51.841526 98.172251 27 41 32
93.760846 -53.039949 95.998627 53 70 60
93.462099 -53.180010 97.475670 76 98 78
93.269999 -53.622957 97.488686 70 98 73
90.823687 -53.343126 97.804182 132 158 129
92.671098 -53.828276 98.074673 60 83 56
93.383607 -53.936850 97.150758 88 117 86
91.466911 -54.049083 97.448483 66 93 71
93.499307 -54.147473 96.276070 71 89 67
91.222195 -54.128540 96.556945 88 119 91
91.944443 -54.232724 96.625146 93 116 90
91.939992 -54.239759 96.320032 57 88 65
91.694168 -54.342976 96.001573 74 88 66
91.617598 -51.943726 98.065672 42 61 48
92.900920 -53.036827 98.930927 71 98 80
92.279368 -53.255010 99.555709 59 87 66
91.759235 -53.516539 99.531160 92 121 91
92.736752 -53.436557 98.618114 62 93 69
92.535905 -53.837381 98.649371 93 118 93
92.818127 -53.722510 98.280012 57 82 63
92.808948 -53.748021 97.975392 101 124 99
92.823406 -53.681156 97.668298 83 111 83
91.153491 -53.744607 97.732292 61 87 65
91.720064 -54.135135 97.389522 69 97 68
93.326318 -54.137431 96.469201 39 61 44
93.124084 -52.902474 97.989465 26 44 29
93.015633 -53.315962 97.695241 65 87 61
93.649095 -53.368766 97.362791 38 54 39
92.175088 -53.650902 99.222850 102 130 93
91.277109 -54.020671 97.431513 93 120 91
90.989874 -54.121457 96.808261 107 132 104
93.589612 -53.449918 97.441866 78 100 82
91.617607 -53.636706 98.104710 88 117 92
91.587739 -54.296544 95.982971 97 117 90
91.824507 -52.891559 99.954724 49 88 66
91.040035 -52.528030 98.679170 30 50 34
90.912642 -52.302876 97.778897 22 41 25
91.223081 -52.177347 98.076815 28 39 29
91.478635 -52.025741 98.088674 49 68 55
92.239797 -51.903366 95.956442 29 45 34
92.718826 -52.329509 95.653939 80 88 74
92.438998 -52.439668 98.427717 26 40 34
92.181938 -52.570719 99.903944 39 60 46
93.023595 -53.883000 97.192936 88 107 85
90.646870 -53.673890 96.268598 36 61 42
90.710351 -52.995793 97.187144 46 68 51
90.709241 -53.008552 97.435544 31 49 37
91.143461 -53.135893 99.035187 87 110 84
90.851312 -52.609806 97.500612 39 62 42
90.991906 -52.881047 99.012438 45 69 55
90.892723 -52.612236 97.805405 42 60 44
91.283676 -52.094437 98.074019 41 57 43
91.302437 -52.109730 98.417607 30 50 38
92.405131 -52.036472 96.243357 32 45 34
93.578194 -52.588457 95.666456 34 47 40
93.017081 -52.779923 95.659973 62 66 55
93.719613 -52.814379 95.936776 28 40 30
93.820304 -53.114745 95.980400 26 42 29
92.747317 -52.562358 98.998563 48 70 57
93.249951 -53.019073 97.780395 34 51 38
92.683565 -53.273894 99.034983 90 115 88
92.278025 -53.769804 98.708826 99 127 104
93.269848 -53.701150 97.509575 68 91 73
92.379263 -54.025292 97.491875 70 96 74
92.187949 -52.294344 99.248633 33 52 40
91.558780 -52.279699 98.933050 60 78 58
90.912232 -52.203562 97.070511 53 79 62
90.885130 -52.223461 96.804192 58 83 62
91.742809 -51.838504 98.042335 52 74 60
91.997250 -51.688656 97.977916 26 39 27
91.327620 -51.693016 95.831313 67 77 60
91.987539 -52.649535 100.252107 37 66 42
91.717949 -52.756374 99.571485 57 88 68
91.969611 -52.621923 99.641049 75 98 71
91.554031 -52.465121 99.319071 59 79 55
91.469866 -52.150565 98.492441 61 90 69
90.839404 -52.349819 97.532958 57 69 52
91.979708 -51.916305 98.136092 32 47 37
92.154839 -51.511181 97.284507 34 52 44
90.886310 -51.731860 96.048570 46 61 46
92.588654 -52.385698 98.195283 22 40 27
92.455212 -52.792813 99.370731 49 67 51
91.877941 -52.352240 99.273575 28 49 38
92.119868 -52.244180 99.000380 34 51 41
92.012134 -52.622594 100.022120 37 60 39
92.030611 -52.616327 99.697281 57 74 50
90.809969 -52.117535 96.363918 40 58 46
90.992182 -51.779172 96.029032 29 43 32
92.346387 -53.006039 99.930666 98 124 90
91.592201 -51.594093 96.168681 60 97 104
91.883683 -53.769284 98.638232 105 137 105
91.055353 -53.963878 97.433439 98 125 95
92.138621 -52.226473 98.369932 37 53 42
91.719151 -52.097826 98.430337 40 54 42
90.817049 -52.173296 96.555939 55 75 61
91.883717 -51.742411 97.828141 48 65 51
91.213684 -51.680457 95.947189 63 79 64
92.110508 -54.130811 96.868463 87 105 84
91.161724 -54.278204 96.275021 68 92 70
90.817111 -53.576381 97.122638 96 120 95
91.526024 -52.965180 99.502765 57 80 49
90.772194 -51.931442 95.596825 64 78 53
91.440563 -52.018034 98.012717 32 47 32
92.984657 -53.999560 96.146581 62 84 65
90.848998 -52.179676 95.887686 17 33 22
90.775811 -51.925725 95.844730 33 51 37
92.807308 -52.792222 99.079323 59 82 64
93.295480 -53.293802 97.518892 40 55 39
93.017434 -53.413078 98.498975 55 79 55
92.117557 -54.309519 96.147295 49 78 58
90.889461 -53.820651 96.783706 54 87 63
92.942697 -54.031009 96.777685 87 117 93
93.249119 -53.855882 97.418027 67 85 64
90.744049 -52.564694 97.424801 55 78 62
91.239594 -52.363105 98.653372 17 34 26
92.063810 -52.742702 100.443980 55 85 51
92.385210 -52.600779 99.252821 47 66 47
90.894311 -52.208950 97.433490 60 93 74
90.761507 -51.925397 96.455614 40 62 44
91.792566 -51.561796 95.611582 128 148 156
92.294809 -52.007197 96.282459 19 35 24
93.699418 -53.135179 96.268892 33 46 36
93.011162 -52.676455 98.730170 41 65 48
93.295176 -52.614699 97.865830 58 80 67
92.568795 -53.262653 99.093650 55 83 57
92.290744 -53.359929 99.424375 44 62 44
91.118174 -53.877450 97.583200 95 120 98
92.909389 -53.079390 98.893617 58 80 60
91.964938 -53.185994 99.864046 51 81 57
92.453266 -53.631380 98.932084 72 98 75
93.517996 -53.806117 97.432040 55 79 60
91.509636 -53.670666 98.011649 32 52 38
92.577712 -53.873126 97.714477 70 90 70
93.280919 -53.951456 97.095341 62 87 62
92.271014 -54.059692 97.379745 89 116 87
93.651467 -54.089545 96.215263 88 111 84
91.303501 -54.068845 97.355904 87 116 85
91.007644 -54.194263 96.466172 99 127 100
92.468280 -52.739146 99.292967 34 55 42
93.424003 -53.328250 97.460560 31 47 35
92.666043 -52.499106 99.112793 61 82 63
93.354785 -52.611302 97.826715 65 88 72
92.935224 -53.128444 98.779868 30 52 33
92.985475 -53.362698 97.868513 55 78 55
93.524795 -53.851318 97.280313 46 65 48
92.594244 -53.880936 97.580829 63 88 64
93.033283 -53.344014 98.287229 84 111 85
92.717843 -53.510457 98.620094 58 88 64
92.572433 -53.914480 98.326190 69 93 69
93.517564 -53.873750 97.109181 73 94 74
91.217398 -53.801367 97.694501 58 93 63
91.609769 -53.960912 97.692455 105 132 97
92.007545 -54.156856 97.118655 56 91 60
93.001729 -53.370948 97.715795 76 104 69
92.481676 -52.373146 99.112578 28 47 33
93.276267 -52.688600 97.867810 55 74 58
92.439617 -53.017384 99.662394 85 104 78
91.939355 -53.281447 99.733033 93 121 98
91.505339 -51.695582 95.962367 48 74 58
92.824826 -52.454574 95.674360 71 74 60
92.896471 -52.788917 95.642856 40 51 43
92.369402 -52.324948 98.368835 37 50 40
92.282657 -52.726138 100.211400 46 72 52
91.735664 -52.283584 99.006894 48 65 52
91.754697 -52.276437 98.720194 55 72 54
92.961564 -52.642023 98.806435 62 85 60
91.642692 -53.274237 99.374602 111 139 113
91.511792 -53.321500 99.301267 61 89 68
91.457610 -52.369860 99.012940 67 100 88
90.660736 -52.059872 95.620496 59 72 50
93.035175 -53.619831 97.568376 62 84 68
92.158930 -53.843353 98.502337 46 74 49
91.528931 -53.027537 99.408741 33 54 35
91.050451 -52.567514 98.775348 51 69 51
90.627470 -52.423339 95.705698 60 69 50
91.305727 -52.416348 98.768138 55 80 57
92.114236 -53.567305 98.821049 80 114 87
92.488803 -53.765992 97.923226 42 74 53
92.567979 -51.995590 95.648440 29 41 30
92.612398 -52.283077 95.635337 83 83 73
93.146312 -52.735298 95.618891 26 43 33
93.656899 -53.156507 96.537178 24 36 26
93.506215 -53.623884 97.504345 52 73 53
91.486410 -53.037865 99.352348 65 88 64
91.038876 -52.852683 99.049266 71 100 84
90.848859 -52.312869 97.531968 59 71 54
91.495961 -52.377127 99.107967 65 93 70
91.368719 -52.073779 98.186805 25 40 30
90.867981 -51.648934 96.027841 52 64 48
90.976506 -51.603095 95.834362 153 156 155
93.714480 -52.755540 95.878242 36 49 40
93.696029 -53.441350 95.837074 44 57 40
91.619106 -53.065718 99.580060 53 80 54
90.685693 -52.444139 96.220591 65 79 60
91.264770 -52.179337 98.400678 28 43 30
92.030330 -53.430257 98.723694 79 107 73
90.637140 -52.897790 97.205036 54 74 55
93.083730 -54.001670 96.278771 72 92 69
90.790539 -53.740347 96.630627 72 99 77
90.625510 -53.461853 96.626613 33 53 43
90.639260 -53.474061 96.302269 74 95 72
91.527667 -53.107489 99.353352 40 66 49
90.777456 -52.079034 96.019995 29 46 32
90.773561 -52.085190 95.753021 42 60 42
91.894984 -52.682065 99.624440 30 52 35
93.053655 -52.800073 98.198054 36 52 41
92.948211 -53.498619 97.585933 59 86 62
91.460845 -53.779862 97.881292 74 103 74
92.546566 -53.988373 97.526751 93 121 93
92.250153 -54.114670 96.598880 53 71 52
91.435595 -52.771491 99.251528 45 61 44
90.624851 -52.404542 97.117506 60 79 63
91.205699 -52.104856 96.205181 53 69 58
90.648616 -54.049899 96.219991 64 88 68
92.997839 -53.399104 98.098178 69 96 62
92.828941 -53.806309 97.461181 68 96 69
93.083687 -52.686584 98.309502 30 45 33
92.233132 -53.059354 99.799961 65 92 67
91.950842 -54.222610 97.063747 62 93 62
91.982831 -52.490063 99.542396 58 76 56
91.167085 -52.164028 98.039157 40 53 44
92.550994 -52.222359 95.844755 51 50 35
92.540595 -52.259874 98.021328 24 40 29
92.836885 -52.636367 95.621124 83 89 74
93.791387 -53.237475 96.269910 30 42 30
92.168740 -52.535632 99.617070 37 58 40
90.652504 -52.361764 96.772607 58 72 55
91.898107 -52.165387 98.352948 32 50 38
91.468070 -52.075450 98.338065 52 76 55
91.428683 -54.097570 96.744057 67 97 72
93.048567 -54.067320 96.433469 61 88 65
93.353447 -53.972586 96.999351 84 112 86
91.434789 -53.463353 99.152990 88 114 92
91.225342 -52.897372 99.162079 34 58 42
91.125204 -52.585126 98.831915 38 58 42
90.997962 -52.281778 97.910753 54 76 55
91.261988 -52.183735 98.209981 18 31 22
93.198026 -52.765458 97.927976 56 75 59
92.416206 -53.399214 99.156277 70 94 72
92.123568 -53.474601 99.429458 105 125 99
93.129417 -53.406715 97.600254 81 106 75
92.129250 -53.499561 98.552095 70 94 69
92.390234 -54.052897 97.301513 78 93 73
91.432302 -54.102853 97.316641 72 100 78
91.792838 -54.278772 96.399413 84 108 83
91.159652 -54.214529 96.426254 72 97 77
91.862862 -54.303859 96.131797 64 80 59
93.043837 -54.074795 96.109285 38 59 41
90.702136 -53.108738 97.304371 80 103 83
90.734887 -52.401257 96.085298 45 72 58
92.288571 -53.073552 99.799480 47 72 43
92.032739 -53.225598 99.768551 29 46 25
92.261884 -52.124328 98.213107 33 48 38
91.682299 -52.344062 99.180821 95 110 83
92.399137 -52.389846 99.171419 35 50 34
93.667320 -53.217992 97.282713 91 109 93
92.252713 -52.182839 98.882524 26 42 32
91.888828 -51.968197 98.272201 48 66 48
90.876126 -52.014831 96.417836 39 55 40
91.031667 -51.617732 95.814811 60 76 58
92.992606 -53.117564 98.263517 71 99 76
93.288856 -53.014461 97.588883 61 79 65
91.849813 -53.621035 99.436829 73 97 73
92.549000 -53.638768 98.835438 88 110 78
91.983840 -53.903583 98.258191 113 139 111
91.974661 -53.929094 97.953572 72 103 72
93.655542 -53.871248 97.049859 73 96 76
92.375930 -54.052568 97.912397 73 104 72
90.997688 -53.953198 97.281363 105 131 100
93.079689 -54.108019 96.682043 74 98 69
91.400194 -54.141667 97.031747 104 129 107
92.280646 -53.799601 97.621697 40 62 36
92.661363 -51.939741 95.683957 52 57 43
92.420828 -52.045602 96.052500 39 49 36
93.045977 -52.824140 95.755990 60 62 51
